VERSION 0.7
FIELDS x y z rgb
SIZE 4 4 4 4
TYPE F F F F
COUNT 1 1 1 1
WIDTH 94
HEIGHT 1
VIEWPOINT 0 0 0 1 0 0 0
POINTS 94
DATA ascii 
-9.380845 -9.622797 -2.711975 4.2108e+06
-6.427668 -9.29845 -7.1475 4.2108e+06
-6.673182 -8.366471 -6.274619 4.2108e+06
-6.991773 -7.417297 -5.141923 4.2108e+06
-7.476635 -6.489551 -3.418078 4.2108e+06
-4.660934 -9.82499 -8.694217 4.2108e+06
-4.789161 -8.907603 -8.108076 4.2108e+06
-4.924642 -7.938315 -7.488773 4.2108e+06
-5.090885 -6.94378 -6.728851 4.2108e+06
-5.272742 -5.884224 -5.897561 4.2108e+06
-5.493176 -4.767952 -4.889928 4.2108e+06
-5.796125 -3.593498 -3.505106 4.2108e+06
-3.25001 -9.591197 -9.201202 4.2108e+06
-3.328764 -8.66789 -8.697209 4.2108e+06
-3.412236 -7.700549 -8.16302 4.2108e+06
-3.508517 -6.699699 -7.546864 4.2108e+06
-3.610388 -5.640732 -6.894928 4.2108e+06
-3.718351 -4.518431 -6.204003 4.2108e+06
-3.839077 -3.332236 -5.431406 4.2108e+06
-3.984151 -2.074896 -4.502988 4.2108e+06
-4.166878 -0.7233529 -3.333607 4.2108e+06
-1.919484 -9.441072 -9.526751 4.2108e+06
-1.965251 -8.528982 -9.038597 4.2108e+06
-2.013254 -7.572336 -8.526596 4.2108e+06
-2.063661 -6.567784 -7.988955 4.2108e+06
-2.116657 -5.511639 -7.423702 4.2108e+06
-2.172446 -4.399822 -6.828653 4.2108e+06
-2.231256 -3.227803 -6.201384 4.2108e+06
-2.293339 -1.990568 -5.53921 4.2108e+06
-2.366047 -0.6845617 -4.763701 4.2108e+06
-2.443541 0.7069825 -3.937151 4.2108e+06
-2.537301 2.202323 -2.937112 4.2108e+06
-2.675284 3.870146 -1.465388 4.2108e+06
-0.6364987 -9.391947 -9.633284 4.2108e+06
-0.6508825 -8.474281 -9.173035 4.2108e+06
-0.6659311 -7.514185 -8.691504 4.2108e+06
-0.6816923 -6.508637 -8.187178 4.2108e+06
-0.6982175 -5.454342 -7.658402 4.2108e+06
-0.7155638 -4.347662 -7.103354 4.2108e+06
-0.7337941 -3.184587 -6.520021 4.2108e+06
-0.7529775 -1.960706 -5.906191 4.2108e+06
-0.7731908 -0.671115 -5.259405 4.2108e+06
-0.7945193 0.6896286 -4.576933 4.2108e+06
-0.8173898 2.128429 -3.845128 4.2108e+06
-0.8424532 3.656159 -3.043132 4.2108e+06
-0.8691031 5.280543 -2.190396 4.2108e+06
-0.9011077 7.039278 -1.166317 4.2108e+06
0.6365085 -9.391948 -9.633284 4.2108e+06
0.6508921 -8.474282 -9.173034 4.2108e+06
0.6659414 -7.514186 -8.691504 4.2108e+06
0.6817027 -6.508638 -8.187178 4.2108e+06
0.6982281 -5.454342 -7.658401 4.2108e+06
0.7155746 -4.347662 -7.103353 4.2108e+06
0.7338054 -3.184587 -6.52002 4.2108e+06
0.7529892 -1.960705 -5.90619 4.2108e+06
0.7732024 -0.6711152 -5.259404 4.2108e+06
0.7945313 0.6896296 -4.576931 4.2108e+06
0.8174021 2.128433 -3.845122 4.2108e+06
0.8424664 3.656158 -3.043128 4.2108e+06
0.8691163 5.280546 -2.190391 4.2108e+06
0.9011227 7.039283 -1.166302 4.2108e+06
1.919494 -9.441074 -9.526749 4.2108e+06
1.965262 -8.528983 -9.038594 4.2108e+06
2.013265 -7.572338 -8.526593 4.2108e+06
2.063672 -6.567784 -7.988953 4.2108e+06
2.116668 -5.51164 -7.423699 4.2108e+06
2.172458 -4.399822 -6.82865 4.2108e+06
2.231267 -3.227804 -6.201381 4.2108e+06
2.293351 -1.990571 -5.539209 4.2108e+06
2.36606 -0.684562 -4.763695 4.2108e+06
2.443554 0.7069821 -3.937145 4.2108e+06
2.537314 2.202325 -2.937099 4.2108e+06
2.675301 3.87015 -1.465352 4.2108e+06
3.250021 -9.591198 -9.2012 4.2108e+06
3.328774 -8.66789 -8.697206 4.2108e+06
3.412247 -7.700551 -8.163015 4.2108e+06
3.508528 -6.699699 -7.546858 4.2108e+06
3.610399 -5.640734 -6.894923 4.2108e+06
3.718364 -4.518434 -6.203998 4.2108e+06
3.839091 -3.332238 -5.431396 4.2108e+06
3.984165 -2.074897 -4.502977 4.2108e+06
4.166893 -0.7233531 -3.333589 4.2108e+06
4.660934 -9.824989 -8.694217 4.2108e+06
4.78916 -8.907602 -8.108075 4.2108e+06
4.924642 -7.938313 -7.488772 4.2108e+06
5.090886 -6.943782 -6.728851 4.2108e+06
5.272742 -5.884224 -5.897561 4.2108e+06
5.493176 -4.767952 -4.889929 4.2108e+06
5.796123 -3.593498 -3.505109 4.2108e+06
6.427669 -9.298452 -7.147501 4.2108e+06
6.673183 -8.366471 -6.274618 4.2108e+06
6.991773 -7.417297 -5.141922 4.2108e+06
7.476635 -6.48955 -3.418078 4.2108e+06
9.380846 -9.622797 -2.711974 4.2108e+06
