VERSION 0.7
FIELDS x y z rgb
SIZE 4 4 4 4
TYPE F F F F
COUNT 1 1 1 1
WIDTH 79
HEIGHT 1
VIEWPOINT 0 0 0 1 0 0 0
POINTS 79
DATA ascii 
-9.108475 -9.348373 -3.139456 4.2108e+06
-8.935405 -8.317935 -1.943662 4.2108e+06
-8.731649 -7.502999 -0.2015446 4.2108e+06
-7.677358 -9.480493 -5.924821 4.2108e+06
-7.508473 -8.295528 -5.201169 4.2108e+06
-7.326115 -7.129358 -4.375045 4.2108e+06
-7.133139 -5.941787 -3.482512 4.2108e+06
-6.922677 -4.752602 -2.467211 4.2108e+06
-6.679774 -3.597811 -1.209558 4.2108e+06
-6.290006 -2.823102 1.234067 4.2108e+06
-6.15885 -8.956409 -7.14794 4.2108e+06
-5.982601 -7.753419 -6.518209 4.2108e+06
-5.802132 -6.521625 -5.873402 4.2108e+06
-5.608085 -5.292004 -5.160956 4.2108e+06
-5.406693 -4.032181 -4.418199 4.2108e+06
-5.199233 -2.73446 -3.653111 4.2108e+06
-4.968745 -1.434866 -2.774437 4.2108e+06
-4.715698 -0.1123576 -1.788556 4.2108e+06
-4.381785 1.159216 -0.3919806 4.2108e+06
-4.83811 -9.863004 -8.620962 4.2108e+06
-4.657247 -8.678883 -8.049538 4.2108e+06
-4.472602 -7.469924 -7.466121 4.2108e+06
-4.284055 -6.235425 -6.87038 4.2108e+06
-4.091463 -4.974511 -6.261897 4.2108e+06
-3.890474 -3.695888 -5.623312 4.2108e+06
-3.681486 -2.393963 -4.956766 4.2108e+06
-3.46733 -1.059903 -4.273774 4.2108e+06
-3.247857 0.3074205 -3.573735 4.2108e+06
-3.016797 1.702093 -2.832563 4.2108e+06
-2.766867 3.123102 -2.022522 4.2108e+06
-2.48297 4.569808 -1.086639 4.2108e+06
-3.325838 -9.775405 -9.273985 4.2108e+06
-3.131855 -8.591131 -8.717028 4.2108e+06
-2.933937 -7.382737 -8.148722 4.2108e+06
-2.731951 -6.149516 -7.56874 4.2108e+06
-2.525759 -4.890694 -6.976722 4.2108e+06
-2.315255 -3.605459 -6.372278 4.2108e+06
-2.100278 -2.293017 -5.755043 4.2108e+06
-1.880677 -0.9523838 -5.124552 4.2108e+06
-1.65635 0.4172386 -4.480421 4.2108e+06
-1.427096 1.816864 -3.822184 4.2108e+06
-1.192772 3.247515 -3.149352 4.2108e+06
-0.9531928 4.710163 -2.461476 4.2108e+06
-0.7082091 6.205912 -1.758027 4.2108e+06
-0.456059 7.735604 -1.033836 4.2108e+06
-0.1966374 9.301086 -0.2885194 4.2108e+06
-1.758487 -9.853176 -9.753392 4.2108e+06
-1.542695 -8.676452 -9.186283 4.2108e+06
-1.322237 -7.474174 -8.606858 4.2108e+06
-1.096947 -6.245538 -8.014729 4.2108e+06
-0.8666415 -4.989669 -7.409478 4.2108e+06
-0.6311922 -3.705641 -6.790653 4.2108e+06
-0.3903948 -2.392543 -6.157821 4.2108e+06
-0.1440561 -1.049267 -5.510445 4.2108e+06
0.1153756 0.3180277 -4.829622 4.2108e+06
0.3917332 1.711185 -4.105825 4.2108e+06
0.6761928 3.142202 -3.360815 4.2108e+06
1.004412 4.595481 -2.505571 4.2108e+06
1.472247 6.055717 -1.299797 4.2108e+06
0.1607801 -8.948438 -9.458384 4.2108e+06
0.4202579 -7.760456 -8.838837 4.2108e+06
0.68638 -6.542051 -8.203423 4.2108e+06
0.9594444 -5.291987 -7.551497 4.2108e+06
1.239665 -4.009037 -6.882421 4.2108e+06
1.552778 -2.719838 -6.143065 4.2108e+06
1.887624 -1.401157 -5.3558 4.2108e+06
2.269938 -0.06694436 -4.466604 4.2108e+06
2.752444 1.264111 -3.364482 4.2108e+06
2.058036 -9.459991 -9.494559 4.2108e+06
2.387631 -8.302861 -8.792891 4.2108e+06
2.728046 -7.107739 -8.068184 4.2108e+06
3.085104 -5.879104 -7.310191 4.2108e+06
3.526114 -4.685411 -6.400968 4.2108e+06
4.034804 -3.481264 -5.366708 4.2108e+06
4.794282 -2.397444 -3.882204 4.2108e+06
4.770182 -9.259093 -8.316535 4.2108e+06
5.303456 -8.175636 -7.347353 4.2108e+06
5.993852 -7.171566 -6.134433 4.2108e+06
7.419791 -6.752981 -3.802496 4.2108e+06
