VERSION 0.7
FIELDS x y z rgb
SIZE 4 4 4 4
TYPE F F F F
COUNT 1 1 1 1
WIDTH 76
HEIGHT 1
VIEWPOINT 0 0 0 1 0 0 0
POINTS 76
DATA ascii 
-10 5.471807 9.247101 4.2108e+06
-10 8.753182 8.274399 4.2108e+06
-10 -7.058043 6.745348 4.2108e+06
-10 -2.705255 5.804379 4.2108e+06
-10 1.184363 4.963289 4.2108e+06
-10 4.680923 4.207335 4.2108e+06
-10 7.841179 3.523956 4.2108e+06
-9.26235 10 4.11706 4.2108e+06
-6.00511 10 8.796488 4.2108e+06
-10 -7.22754 1.283537 4.2108e+06
-10 -3.099161 0.6832876 4.2108e+06
-10 0.612186 0.1438909 4.2108e+06
-10 3.966749 -0.343864 4.2108e+06
-10 7.013552 -0.7867503 4.2108e+06
-10 9.793123 -1.190898 4.2108e+06
-7.351056 9.999999 2.205764 4.2108e+06
-3.890636 10 6.68201 4.2108e+06
-10 -7.378871 -3.592713 4.2108e+06
-10 -3.453105 -3.91613 4.2108e+06
-10 0.09542894 -4.208574 4.2108e+06
-10 3.318519 -4.474015 4.2108e+06
-10 6.259043 -4.716362 4.2108e+06
-10 8.952559 -4.938259 4.2108e+06
-8.4611 10 -3.229687 4.2108e+06
-5.439861 10 0.294342 4.2108e+06
-1.776293 10 4.567379 4.2108e+06
2.758888 9.999999 9.857156 4.2108e+06
-10 -7.514629 -7.97264 4.2108e+06
-10 -3.772617 -8.070016 4.2108e+06
-10 -0.373518 -8.158465 4.2108e+06
-10 2.727701 -8.239245 4.2108e+06
-9.999999 5.568498 -8.313095 4.2108e+06
-10 8.180384 -8.381134 4.2108e+06
-9.392131 10 -7.788663 4.2108e+06
-6.717377 10 -4.973416 4.2108e+06
-3.52857 10 -1.616946 4.2108e+06
0.3381789 10 2.452913 4.2108e+06
5.124873 10 7.491168 4.2108e+06
-7.973555 -7.513809 -10 4.2108e+06
-8.070885 -3.771913 -10 4.2108e+06
-8.159295 -0.3729202 -9.999999 4.2108e+06
-8.23988 2.728114 -10 4.2108e+06
-8.313847 5.568941 -10 4.2108e+06
-8.381716 8.180687 -10 4.2108e+06
-7.788937 10 -9.391853 4.2108e+06
-4.973642 10 -6.717146 4.2108e+06
-1.617287 10 -3.52824 4.2108e+06
2.452643 10 0.3384509 4.2108e+06
7.490862 10 5.125181 4.2108e+06
-3.593781 -7.378017 -10 4.2108e+06
-3.917141 -3.452377 -10 4.2108e+06
-4.209332 0.09592819 -10 4.2108e+06
-4.474925 3.31905 -10 4.2108e+06
-4.71705 6.259407 -10 4.2108e+06
-4.938917 8.952864 -10 4.2108e+06
-3.229911 10 -8.460878 4.2108e+06
0.2940102 10 -5.439527 4.2108e+06
4.567106 10 -1.776014 4.2108e+06
9.856851 10 2.759192 4.2108e+06
1.28229 -7.226816 -10 4.2108e+06
0.6823568 -3.098729 -10 4.2108e+06
0.1427941 0.6126571 -10 4.2108e+06
-0.3446865 3.967013 -10 4.2108e+06
-0.787528 7.013757 -10 4.2108e+06
-1.191455 9.7932 -10 4.2108e+06
2.205167 10 -7.350915 4.2108e+06
6.681408 10 -3.8906 4.2108e+06
6.744178 -7.057489 -10 4.2108e+06
5.803018 -2.704649 -10 4.2108e+06
4.962273 1.184714 -9.999999 4.2108e+06
4.206386 4.681189 -10 4.2108e+06
3.523285 7.841288 -10 4.2108e+06
4.116448 10 -9.262195 4.2108e+06
8.795857 10 -6.005051 4.2108e+06
9.246284 5.471964 -10 4.2108e+06
8.27338 8.753379 -10 4.2108e+06
