VERSION 0.7
FIELDS x y z rgb
SIZE 4 4 4 4
TYPE F F F F
COUNT 1 1 1 1
WIDTH 142
HEIGHT 1
VIEWPOINT 0 0 0 1 0 0 0
POINTS 142
DATA ascii 
-9.996505 -0.05559337 -0.03549337 4.2108e+06
-9.861877 1.998579 -1.402392 4.2108e+06
-9.737879 3.728929 -2.181578 4.2108e+06
-9.618798 5.270737 -2.574131 4.2108e+06
-9.50588 6.73275 -2.94637 4.2108e+06
-9.398637 8.121074 -3.299906 4.2108e+06
-9.29669 9.441037 -3.635981 4.2108e+06
-9.137576 -8.716832 -4.016203 4.2108e+06
-9.022236 -6.823891 -4.231989 4.2108e+06
-8.911983 -5.01444 -4.438259 4.2108e+06
-8.80649 -3.283119 -4.635621 4.2108e+06
-8.705453 -1.624951 -4.824648 4.2108e+06
-8.608577 -0.0353322 -5.005891 4.2108e+06
-8.51565 1.489792 -5.179744 4.2108e+06
-8.426413 2.954281 -5.346694 4.2108e+06
-8.340656 4.361776 -5.507135 4.2108e+06
-8.255746 5.709447 -5.627534 4.2108e+06
-8.172671 7.00832 -5.728759 4.2108e+06
-8.092327 8.264232 -5.82666 4.2108e+06
-8.014614 9.479227 -5.921352 4.2108e+06
-7.712534 -9.185463 -6.289439 4.2108e+06
-7.628142 -7.416786 -6.392271 4.2108e+06
-7.546932 -5.714766 -6.491226 4.2108e+06
-7.46872 -4.075718 -6.586527 4.2108e+06
-7.393354 -2.496187 -6.678361 4.2108e+06
-7.320671 -0.9730492 -6.766925 4.2108e+06
-7.250521 0.4967842 -6.852405 4.2108e+06
-7.182806 1.915931 -6.934916 4.2108e+06
-7.117379 3.287049 -7.014637 4.2108e+06
-7.053352 4.611105 -7.085608 4.2108e+06
-6.989265 5.889546 -7.138201 4.2108e+06
-6.927132 7.129123 -7.189194 4.2108e+06
-6.866838 8.331635 -7.238675 4.2108e+06
-6.808337 9.498635 -7.286685 4.2108e+06
-6.258078 -8.466713 -7.738272 4.2108e+06
-6.199554 -6.794671 -7.786302 4.2108e+06
-6.143035 -5.179931 -7.832685 4.2108e+06
-6.088412 -3.619563 -7.877512 4.2108e+06
-6.035607 -2.110906 -7.920849 4.2108e+06
-5.984514 -0.6514339 -7.96278 4.2108e+06
-5.935048 0.7613087 -8.003376 4.2108e+06
-5.887161 2.129419 -8.042674 4.2108e+06
-5.840756 3.455045 -8.080759 4.2108e+06
-5.795776 4.740144 -8.117672 4.2108e+06
-5.752146 5.986489 -8.15348 4.2108e+06
-5.709817 7.195823 -8.188218 4.2108e+06
-5.668709 8.369829 -8.221954 4.2108e+06
-5.628796 9.509948 -8.25471 4.2108e+06
-4.85464 -9.799393 -8.689422 4.2108e+06
-4.81779 -8.11761 -8.709119 4.2108e+06
-4.782171 -6.491504 -8.728158 4.2108e+06
-4.747714 -4.918466 -8.746575 4.2108e+06
-4.714352 -3.395874 -8.764408 4.2108e+06
-4.682053 -1.921387 -8.781672 4.2108e+06
-4.650748 -0.4927306 -8.798405 4.2108e+06
-4.620392 0.8922458 -8.814631 4.2108e+06
-4.59097 2.235434 -8.830357 4.2108e+06
-4.562413 3.538697 -8.845621 4.2108e+06
-4.5347 4.803869 -8.860434 4.2108e+06
-4.507778 6.0325 -8.874824 4.2108e+06
-4.481631 7.226224 -8.8888 4.2108e+06
-4.456199 8.386501 -8.902393 4.2108e+06
-4.431479 9.514675 -8.915606 4.2108e+06
-3.360098 -9.673885 -9.380378 4.2108e+06
-3.347186 -8.008258 -9.384295 4.2108e+06
-3.334708 -6.396824 -9.38808 4.2108e+06
-3.32263 -4.83703 -9.391745 4.2108e+06
-3.31092 -3.326441 -9.395296 4.2108e+06
-3.299587 -1.862748 -9.398734 4.2108e+06
-3.288588 -0.4438505 -9.402071 4.2108e+06
-3.277911 0.9323854 -9.40531 4.2108e+06
-3.267572 2.267743 -9.408445 4.2108e+06
-3.257524 3.564071 -9.411494 4.2108e+06
-3.247775 4.823081 -9.414451 4.2108e+06
-3.238293 6.046302 -9.417328 4.2108e+06
-3.229086 7.235251 -9.42012 4.2108e+06
-3.220117 8.391405 -9.422841 4.2108e+06
-3.211398 9.516017 -9.425486 4.2108e+06
-1.787218 -9.78397 -9.823975 4.2108e+06
-1.801249 -8.10548 -9.822593 4.2108e+06
-1.814837 -6.482241 -9.821254 4.2108e+06
-1.827984 -4.911602 -9.81996 4.2108e+06
-1.840694 -3.391052 -9.818707 4.2108e+06
-1.853022 -1.918223 -9.817492 4.2108e+06
-1.864954 -0.4909515 -9.816319 4.2108e+06
-1.876517 0.892956 -9.815179 4.2108e+06
-1.887755 2.235332 -9.814072 4.2108e+06
-1.898645 3.538073 -9.813 4.2108e+06
-1.909233 4.802933 -9.811956 4.2108e+06
-1.919502 6.031482 -9.810946 4.2108e+06
-1.929496 7.225276 -9.809961 4.2108e+06
-1.939192 8.385817 -9.809006 4.2108e+06
-1.948626 9.5144 -9.808077 4.2108e+06
-0.1021506 -8.45811 -9.989939 4.2108e+06
-0.1445175 -6.797842 -9.985766 4.2108e+06
-0.1854852 -5.192445 -9.981731 4.2108e+06
-0.2251003 -3.639164 -9.97783 4.2108e+06
-0.2634711 -2.13554 -9.974051 4.2108e+06
-0.3006147 -0.6792202 -9.970392 4.2108e+06
-0.336606 0.7320614 -9.966846 4.2108e+06
-0.3715211 2.100263 -9.963408 4.2108e+06
-0.4053676 3.427329 -9.960075 4.2108e+06
-0.4382327 4.715173 -9.956839 4.2108e+06
-0.4701194 5.965421 -9.953697 4.2108e+06
-0.5011091 7.179759 -9.950645 4.2108e+06
-0.5312 8.359705 -9.947681 4.2108e+06
-0.5604516 9.50666 -9.9448 4.2108e+06
1.869066 -9.155033 -9.815913 4.2108e+06
1.785232 -7.412838 -9.82417 4.2108e+06
1.704343 -5.731789 -9.832137 4.2108e+06
1.626275 -4.108787 -9.839826 4.2108e+06
1.550825 -2.540823 -9.847257 4.2108e+06
1.477922 -1.025241 -9.854438 4.2108e+06
1.407408 0.4407063 -9.861382 4.2108e+06
1.339144 1.859263 -9.868105 4.2108e+06
1.273079 3.232801 -9.874612 4.2108e+06
1.209051 4.563399 -9.880919 4.2108e+06
1.14702 5.852995 -9.887029 4.2108e+06
1.086845 7.103473 -9.892956 4.2108e+06
1.02849 8.316639 -9.898703 4.2108e+06
0.9718564 9.494055 -9.90428 4.2108e+06
4.322393 -8.675231 -8.973913 4.2108e+06
4.138022 -6.791498 -9.072462 4.2108e+06
3.961742 -4.989823 -9.166687 4.2108e+06
3.799449 -3.271238 -9.247103 4.2108e+06
3.668509 -1.643933 -9.286822 4.2108e+06
3.542354 -0.0761342 -9.325091 4.2108e+06
3.420707 1.435209 -9.361992 4.2108e+06
3.303398 2.893173 -9.397578 4.2108e+06
3.190123 4.300538 -9.43194 4.2108e+06
3.08075 5.659847 -9.465117 4.2108e+06
2.975009 6.973538 -9.497194 4.2108e+06
2.872785 8.243918 -9.528202 4.2108e+06
2.773889 9.47301 -9.558203 4.2108e+06
8.093786 -2.105138 -5.824883 4.2108e+06
6.925519 0.2784042 -7.190516 4.2108e+06
6.568728 2.026539 -7.483327 4.2108e+06
6.231963 3.676087 -7.759703 4.2108e+06
5.913761 5.235077 -8.020844 4.2108e+06
5.612466 6.710878 -8.268112 4.2108e+06
5.402323 8.100626 -8.39668 4.2108e+06
5.218643 9.431988 -8.494858 4.2108e+06
