VERSION 0.7
FIELDS x y z rgb
SIZE 4 4 4 4
TYPE F F F F
COUNT 1 1 1 1
WIDTH 204
HEIGHT 1
VIEWPOINT 0 0 0 1 0 0 0
POINTS 204
DATA ascii 
-8.562856 -8.783699 -5.091428 4.2108e+06
-8.562856 -7.432365 -5.091429 4.2108e+06
-8.562859 -6.080988 -5.091424 4.2108e+06
-8.562857 -4.729664 -5.091426 4.2108e+06
-8.562857 -3.378303 -5.091427 4.2108e+06
-8.562857 -2.026958 -5.091428 4.2108e+06
-8.562857 -0.6757221 -5.091426 4.2108e+06
-8.562857 0.6757212 -5.091426 4.2108e+06
-8.562857 2.02698 -5.091428 4.2108e+06
-8.562857 3.378308 -5.091426 4.2108e+06
-8.562857 4.729691 -5.091425 4.2108e+06
-8.562859 6.081029 -5.091424 4.2108e+06
-8.562855 7.432365 -5.091431 4.2108e+06
-8.562857 8.783705 -5.091427 4.2108e+06
-6.262532 -9.059565 -7.734616 4.2108e+06
-6.262532 -7.851629 -7.734616 4.2108e+06
-6.262532 -6.643677 -7.734616 4.2108e+06
-6.262532 -5.435742 -7.734616 4.2108e+06
-6.262532 -4.227792 -7.734615 4.2108e+06
-6.262532 -3.019842 -7.734615 4.2108e+06
-6.262532 -1.811918 -7.734616 4.2108e+06
-6.262531 -0.6039805 -7.734617 4.2108e+06
-6.262531 0.6039662 -7.734617 4.2108e+06
-6.262532 1.811913 -7.734616 4.2108e+06
-6.262533 3.019851 -7.734616 4.2108e+06
-6.262532 4.227796 -7.734615 4.2108e+06
-6.262532 5.435736 -7.734616 4.2108e+06
-6.262532 6.643675 -7.734616 4.2108e+06
-6.262532 7.851615 -7.734615 4.2108e+06
-6.262531 9.059561 -7.734616 4.2108e+06
-4.636472 -9.773418 -8.806035 4.2108e+06
-4.636473 -8.623611 -8.806035 4.2108e+06
-4.636472 -7.473797 -8.806035 4.2108e+06
-4.636472 -6.323968 -8.806035 4.2108e+06
-4.636473 -5.174158 -8.806035 4.2108e+06
-4.636473 -4.024349 -8.806035 4.2108e+06
-4.636473 -2.874524 -8.806034 4.2108e+06
-4.636473 -1.724723 -8.806035 4.2108e+06
-4.636473 -0.5749092 -8.806035 4.2108e+06
-4.636473 0.574914 -8.806035 4.2108e+06
-4.636472 1.724722 -8.806034 4.2108e+06
-4.636473 2.874536 -8.806035 4.2108e+06
-4.636473 4.024353 -8.806034 4.2108e+06
-4.636473 5.174166 -8.806035 4.2108e+06
-4.636473 6.323979 -8.806034 4.2108e+06
-4.636473 7.473793 -8.806035 4.2108e+06
-4.636473 8.62361 -8.806034 4.2108e+06
-4.636473 9.773422 -8.806035 4.2108e+06
-3.215141 -9.488294 -9.42435 4.2108e+06
-3.215142 -8.372024 -9.424351 4.2108e+06
-3.215141 -7.255754 -9.42435 4.2108e+06
-3.215141 -6.139482 -9.424351 4.2108e+06
-3.215141 -5.023213 -9.424351 4.2108e+06
-3.215141 -3.906945 -9.424351 4.2108e+06
-3.215141 -2.790673 -9.42435 4.2108e+06
-3.215141 -1.674405 -9.424351 4.2108e+06
-3.215142 -0.5581369 -9.424351 4.2108e+06
-3.215142 0.5581369 -9.424351 4.2108e+06
-3.215141 1.674405 -9.424351 4.2108e+06
-3.215141 2.790673 -9.424351 4.2108e+06
-3.215141 3.906946 -9.424351 4.2108e+06
-3.215141 5.023213 -9.424351 4.2108e+06
-3.215141 6.139483 -9.424351 4.2108e+06
-3.215142 7.255753 -9.424351 4.2108e+06
-3.215141 8.372025 -9.424351 4.2108e+06
-3.215142 9.488293 -9.42435 4.2108e+06
-1.892591 -9.308798 -9.813596 4.2108e+06
-1.892591 -8.213644 -9.813597 4.2108e+06
-1.892591 -7.118492 -9.813596 4.2108e+06
-1.892591 -6.023338 -9.813596 4.2108e+06
-1.892591 -4.928186 -9.813597 4.2108e+06
-1.892591 -3.833036 -9.813597 4.2108e+06
-1.892591 -2.737881 -9.813596 4.2108e+06
-1.892591 -1.642729 -9.813596 4.2108e+06
-1.892591 -0.5475785 -9.813597 4.2108e+06
-1.892591 0.547578 -9.813597 4.2108e+06
-1.892591 1.642729 -9.813597 4.2108e+06
-1.892591 2.73788 -9.813596 4.2108e+06
-1.892591 3.833036 -9.813597 4.2108e+06
-1.892591 4.928186 -9.813597 4.2108e+06
-1.892591 6.023337 -9.813596 4.2108e+06
-1.892591 7.118488 -9.813597 4.2108e+06
-1.892591 8.213644 -9.813597 4.2108e+06
-1.892591 9.308796 -9.813597 4.2108e+06
-0.6269681 -9.251314 -9.93825 4.2108e+06
-0.626968 -8.162924 -9.938249 4.2108e+06
-0.626968 -7.074536 -9.93825 4.2108e+06
-0.626968 -5.986143 -9.93825 4.2108e+06
-0.626968 -4.897753 -9.938249 4.2108e+06
-0.6269681 -3.809367 -9.93825 4.2108e+06
-0.626968 -2.720973 -9.93825 4.2108e+06
-0.626968 -1.632586 -9.938249 4.2108e+06
-0.626968 -0.5441971 -9.938249 4.2108e+06
-0.626968 0.5441957 -9.938249 4.2108e+06
-0.626968 1.632585 -9.93825 4.2108e+06
-0.626968 2.720973 -9.93825 4.2108e+06
-0.626968 3.809366 -9.938249 4.2108e+06
-0.626968 4.897755 -9.93825 4.2108e+06
-0.626968 5.986142 -9.938249 4.2108e+06
-0.626968 7.074532 -9.93825 4.2108e+06
-0.626968 8.162924 -9.938249 4.2108e+06
-0.626968 9.251313 -9.938249 4.2108e+06
0.6269775 -9.251317 -9.938249 4.2108e+06
0.6269773 -8.162926 -9.938248 4.2108e+06
0.6269776 -7.074535 -9.938248 4.2108e+06
0.6269776 -5.986141 -9.938248 4.2108e+06
0.6269773 -4.897758 -9.938248 4.2108e+06
0.6269776 -3.809366 -9.938248 4.2108e+06
0.6269776 -2.720972 -9.938248 4.2108e+06
0.6269775 -1.632586 -9.938248 4.2108e+06
0.6269777 -0.5441952 -9.938248 4.2108e+06
0.6269776 0.5441964 -9.938249 4.2108e+06
0.6269775 1.632586 -9.938248 4.2108e+06
0.6269776 2.720973 -9.938249 4.2108e+06
0.6269774 3.809366 -9.938248 4.2108e+06
0.6269774 4.897754 -9.938248 4.2108e+06
0.6269774 5.986142 -9.938248 4.2108e+06
0.6269776 7.074533 -9.938249 4.2108e+06
0.6269773 8.162924 -9.938248 4.2108e+06
0.6269774 9.251312 -9.938248 4.2108e+06
1.892601 -9.3088 -9.813596 4.2108e+06
1.8926 -8.213645 -9.813594 4.2108e+06
1.8926 -7.118494 -9.813596 4.2108e+06
1.892601 -6.023339 -9.813595 4.2108e+06
1.892601 -4.928185 -9.813595 4.2108e+06
1.8926 -3.833036 -9.813595 4.2108e+06
1.892601 -2.737878 -9.813595 4.2108e+06
1.8926 -1.642728 -9.813595 4.2108e+06
1.8926 -0.5475783 -9.813595 4.2108e+06
1.8926 0.5475788 -9.813595 4.2108e+06
1.8926 1.642726 -9.813595 4.2108e+06
1.892601 2.737884 -9.813595 4.2108e+06
1.8926 3.833033 -9.813595 4.2108e+06
1.892601 4.928186 -9.813595 4.2108e+06
1.8926 6.023338 -9.813596 4.2108e+06
1.8926 7.118488 -9.813595 4.2108e+06
1.8926 8.213642 -9.813595 4.2108e+06
1.892601 9.308797 -9.813596 4.2108e+06
3.215152 -9.488302 -9.424348 4.2108e+06
3.215152 -8.37203 -9.424348 4.2108e+06
3.215152 -7.255756 -9.424347 4.2108e+06
3.215151 -6.139491 -9.424347 4.2108e+06
3.215152 -5.023212 -9.424347 4.2108e+06
3.215151 -3.906952 -9.424347 4.2108e+06
3.215151 -2.79067 -9.424347 4.2108e+06
3.215152 -1.674408 -9.424347 4.2108e+06
3.215151 -0.5581379 -9.424347 4.2108e+06
3.215152 0.558136 -9.424347 4.2108e+06
3.215152 1.674401 -9.424348 4.2108e+06
3.215151 2.790673 -9.424347 4.2108e+06
3.215152 3.906947 -9.424347 4.2108e+06
3.215151 5.023215 -9.424347 4.2108e+06
3.215151 6.139483 -9.424347 4.2108e+06
3.215152 7.255754 -9.424347 4.2108e+06
3.215152 8.372026 -9.424348 4.2108e+06
3.215151 9.488292 -9.424347 4.2108e+06
4.636472 -9.773422 -8.806035 4.2108e+06
4.636472 -8.623606 -8.806035 4.2108e+06
4.636473 -7.473793 -8.806035 4.2108e+06
4.636473 -6.323975 -8.806035 4.2108e+06
4.636472 -5.174179 -8.806034 4.2108e+06
4.636473 -4.024355 -8.806034 4.2108e+06
4.636473 -2.874534 -8.806035 4.2108e+06
4.636473 -1.724724 -8.806035 4.2108e+06
4.636473 -0.5749083 -8.806035 4.2108e+06
4.636473 0.5749092 -8.806035 4.2108e+06
4.636473 1.724722 -8.806035 4.2108e+06
4.636473 2.874536 -8.806034 4.2108e+06
4.636473 4.024354 -8.806034 4.2108e+06
4.636472 5.174166 -8.806035 4.2108e+06
4.636473 6.323979 -8.806034 4.2108e+06
4.636473 7.473793 -8.806035 4.2108e+06
4.636473 8.623611 -8.806035 4.2108e+06
4.636473 9.773422 -8.806035 4.2108e+06
6.262532 -9.059544 -7.734615 4.2108e+06
6.262532 -7.851615 -7.734616 4.2108e+06
6.262531 -6.643685 -7.734617 4.2108e+06
6.262532 -5.435728 -7.734616 4.2108e+06
6.262532 -4.227814 -7.734615 4.2108e+06
6.262533 -3.019849 -7.734615 4.2108e+06
6.262532 -1.811919 -7.734616 4.2108e+06
6.262531 -0.6039729 -7.734616 4.2108e+06
6.262532 0.6039724 -7.734616 4.2108e+06
6.262532 1.811912 -7.734615 4.2108e+06
6.262533 3.019853 -7.734615 4.2108e+06
6.262532 4.227796 -7.734615 4.2108e+06
6.262533 5.435737 -7.734615 4.2108e+06
6.262532 6.643675 -7.734616 4.2108e+06
6.262533 7.851617 -7.734615 4.2108e+06
6.262532 9.059562 -7.734615 4.2108e+06
8.562853 -8.783751 -5.091435 4.2108e+06
8.562853 -7.432467 -5.091434 4.2108e+06
8.562856 -6.081087 -5.09143 4.2108e+06
8.562854 -4.729764 -5.091432 4.2108e+06
8.562858 -3.378349 -5.091426 4.2108e+06
8.562855 -2.027008 -5.09143 4.2108e+06
8.562855 -0.6756723 -5.09143 4.2108e+06
8.562857 0.6756716 -5.091426 4.2108e+06
8.562854 2.027009 -5.091432 4.2108e+06
8.562858 3.378348 -5.091427 4.2108e+06
8.562857 4.729691 -5.091428 4.2108e+06
8.562858 6.081028 -5.091425 4.2108e+06
8.562855 7.432364 -5.09143 4.2108e+06
8.562854 8.783702 -5.091432 4.2108e+06
