VERSION 0.7
FIELDS x y z rgb
SIZE 4 4 4 4
TYPE F F F F
COUNT 1 1 1 1
WIDTH 54
HEIGHT 1
VIEWPOINT 0 0 0 1 0 0 0
POINTS 54
DATA ascii 
-9.85056 -7.505781 1.517289 4.2108e+06
-9.920723 -3.230331 0.8049113 4.2108e+06
-9.983358 0.5877008 0.1689729 4.2108e+06
-9.970448 3.928284 -0.3000445 4.2108e+06
-9.932257 6.935692 -0.6878003 4.2108e+06
-9.89728 9.689342 -1.042936 4.2108e+06
-7.351049 10 2.205769 4.2108e+06
-3.890641 10 6.682013 4.2108e+06
-9.507197 -8.299889 -2.942033 4.2108e+06
-9.435168 -4.397856 -3.17948 4.2108e+06
-9.3696 -0.8471603 -3.395628 4.2108e+06
-9.309724 2.397605 -3.593017 4.2108e+06
-9.254751 5.374401 -3.774233 4.2108e+06
-9.188357 8.098404 -3.921197 4.2108e+06
-8.4611 10 -3.229691 4.2108e+06
-5.439857 10 0.2943424 4.2108e+06
-1.776288 10 4.567378 4.2108e+06
-8.026844 -7.104548 -5.906452 4.2108e+06
-7.984787 -3.433974 -5.957698 4.2108e+06
-7.946236 -0.0728395 -6.004673 4.2108e+06
-7.910874 3.016473 -6.047761 4.2108e+06
-7.878193 5.865533 -6.087583 4.2108e+06
-7.847993 8.501411 -6.124382 4.2108e+06
-6.717371 10 -4.973419 4.2108e+06
-3.528564 10 -1.616946 4.2108e+06
0.3381801 10 2.452913 4.2108e+06
5.124871 10 7.491167 4.2108e+06
-5.906957 -7.104481 -8.026429 4.2108e+06
-5.95818 -3.433922 -7.984392 4.2108e+06
-6.005043 -0.07278824 -7.945932 4.2108e+06
-6.048203 3.016534 -7.910511 4.2108e+06
-6.087923 5.865563 -7.877915 4.2108e+06
-6.124708 8.50144 -7.847725 4.2108e+06
-4.973641 10 -6.717146 4.2108e+06
-1.617278 10 -3.528241 4.2108e+06
2.452648 10 0.3384578 4.2108e+06
7.49086 10 5.125189 4.2108e+06
-2.942813 -8.299442 -9.506961 4.2108e+06
-3.180224 -4.397501 -9.434942 4.2108e+06
-3.396191 -0.8469031 -9.369429 4.2108e+06
-3.593691 2.397919 -9.309519 4.2108e+06
-3.774748 5.37459 -9.254596 4.2108e+06
-3.921609 8.098494 -9.188137 4.2108e+06
-3.229908 10 -8.460877 4.2108e+06
0.2940171 10 -5.439525 4.2108e+06
4.567112 10 -1.776012 4.2108e+06
1.515795 -7.504704 -9.850708 4.2108e+06
0.8038058 -3.229753 -9.920832 4.2108e+06
0.1676783 0.5883909 -9.983484 4.2108e+06
-0.3007644 3.928466 -9.970377 4.2108e+06
-0.6884875 6.935818 -9.93219 4.2108e+06
-1.043429 9.689369 -9.897232 4.2108e+06
2.205168 10 -7.350913 4.2108e+06
6.681409 10 -3.890596 4.2108e+06
