VERSION 0.7
FIELDS x y z rgb
SIZE 4 4 4 4
TYPE F F F F
COUNT 1 1 1 1
WIDTH 56
HEIGHT 1
VIEWPOINT 0 0 0 1 0 0 0
POINTS 56
DATA ascii 
-9.760439 -1.955041 -5.975801 4.2108e+06
-8.592315 -0.573689 -8.851007 4.2108e+06
-8.592313 0.5736891 -8.851009 4.2108e+06
-9.760435 1.95504 -5.975808 4.2108e+06
-7.104219 -1.681719 -9.334472 4.2108e+06
-6.770272 -0.5342227 -10.30589 4.2108e+06
-6.770273 0.534224 -10.30589 4.2108e+06
-7.104219 1.681719 -9.334471 4.2108e+06
-5.501046 -1.591594 -10.44195 4.2108e+06
-5.305048 -0.5116307 -11.13879 4.2108e+06
-5.305048 0.5116307 -11.13879 4.2108e+06
-5.501046 1.591594 -10.44195 4.2108e+06
-4.131438 -1.536854 -11.11462 4.2108e+06
-4.009775 -0.4971998 -11.67076 4.2108e+06
-4.009774 0.4972003 -11.67076 4.2108e+06
-4.131438 1.536854 -11.11462 4.2108e+06
-2.883416 -1.501647 -11.54726 4.2108e+06
-2.808606 -0.4875636 -12.02602 4.2108e+06
-2.808606 0.4875636 -12.02602 4.2108e+06
-2.883417 1.501647 -11.54726 4.2108e+06
-1.706112 -1.48087 -11.80258 4.2108e+06
-1.663652 -0.4813396 -12.25546 4.2108e+06
-1.663652 0.4813397 -12.25546 4.2108e+06
-1.706112 1.48087 -11.80258 4.2108e+06
-0.5654874 -1.472494 -11.90551 4.2108e+06
-0.5520518 -0.4791707 -12.33542 4.2108e+06
-0.5520517 0.4791706 -12.33542 4.2108e+06
-0.5654873 1.472493 -11.90551 4.2108e+06
0.5654961 -1.472493 -11.90551 4.2108e+06
0.5520601 -0.4791706 -12.33542 4.2108e+06
0.5520602 0.4791707 -12.33542 4.2108e+06
0.5654963 1.472493 -11.90551 4.2108e+06
1.706121 -1.48087 -11.80258 4.2108e+06
1.663661 -0.4813398 -12.25546 4.2108e+06
1.663661 0.4813397 -12.25546 4.2108e+06
1.706121 1.48087 -11.80258 4.2108e+06
2.883426 -1.501647 -11.54726 4.2108e+06
2.808615 -0.4875636 -12.02602 4.2108e+06
2.808615 0.4875634 -12.02602 4.2108e+06
2.883426 1.501647 -11.54726 4.2108e+06
4.131438 -1.536855 -11.11462 4.2108e+06
4.009774 -0.4972005 -11.67076 4.2108e+06
4.009774 0.4972002 -11.67076 4.2108e+06
4.131438 1.536854 -11.11462 4.2108e+06
5.501046 -1.591595 -10.44195 4.2108e+06
5.305048 -0.5116306 -11.13879 4.2108e+06
5.305047 0.5116305 -11.13879 4.2108e+06
5.501047 1.591595 -10.44195 4.2108e+06
7.104218 -1.681719 -9.334473 4.2108e+06
6.770272 -0.5342236 -10.30589 4.2108e+06
6.770273 0.5342239 -10.30589 4.2108e+06
7.104219 1.681718 -9.334473 4.2108e+06
9.760439 -1.955035 -5.975813 4.2108e+06
8.592312 -0.573692 -8.851008 4.2108e+06
8.592313 0.5736881 -8.851009 4.2108e+06
9.760437 1.955039 -5.975809 4.2108e+06
