VERSION 0.7
FIELDS x y z rgb
SIZE 4 4 4 4
TYPE F F F F
COUNT 1 1 1 1
WIDTH 72
HEIGHT 1
VIEWPOINT 0 0 0 1 0 0 0
POINTS 72
DATA ascii 
-11.59628 0.1881418 -4.486264 4.2108e+06
-11.50601 1.330892 -3.617814 4.2108e+06
-11.53717 1.858756 -0.2920304 4.2108e+06
-10.22336 -0.4093825 -6.953872 4.2108e+06
-10.10917 0.9172818 -6.880338 4.2108e+06
-9.997173 1.870148 -5.773979 4.2108e+06
-9.869137 2.419219 -2.905796 4.2108e+06
-9.682134 2.39522 3.734739 4.2108e+06
-8.92476 -1.966833 -7.149101 4.2108e+06
-8.904604 0.1634089 -8.697575 4.2108e+06
-8.792925 1.294238 -8.317338 4.2108e+06
-8.634069 2.168726 -7.159873 4.2108e+06
-8.115318 1.561376 -0.4728637 4.2108e+06
-7.689092 2.147845 4.110319 4.2108e+06
-7.706246 -0.996186 -9.477817 4.2108e+06
-7.661377 0.4222926 -9.721258 4.2108e+06
-7.533918 1.476316 -9.238309 4.2108e+06
-7.308727 2.277274 -7.965864 4.2108e+06
-5.603332 -0.2388151 5.058023 4.2108e+06
-5.36362 1.520886 6.054464 4.2108e+06
-6.486385 -0.733807 -10.4314 4.2108e+06
-6.448105 0.5782824 -10.50699 4.2108e+06
-6.300314 1.591474 -9.979929 4.2108e+06
-6.002716 2.350558 -8.659593 4.2108e+06
-2.937229 -1.113932 7.220848 4.2108e+06
-2.846339 1.050127 7.233684 4.2108e+06
-5.270308 -0.6026762 -11.12878 4.2108e+06
-5.238379 0.6599271 -11.12746 4.2108e+06
-5.070077 1.65357 -10.58553 4.2108e+06
-4.699981 2.391917 -9.256998 4.2108e+06
-0.1655059 -1.686001 8.26009 4.2108e+06
-0.2582216 0.7380081 7.680824 4.2108e+06
0.3884397 2.495542 9.957901 4.2108e+06
-4.029649 -0.5702103 -11.6434 4.2108e+06
-4.010849 0.6800842 -11.61876 4.2108e+06
-3.824276 1.669392 -11.07922 4.2108e+06
-3.385529 2.403217 -9.769222 4.2108e+06
2.481833 -1.914346 8.113932 4.2108e+06
2.240184 0.615474 7.316718 4.2108e+06
2.920612 2.445075 9.330408 4.2108e+06
-2.734985 -0.6279989 -12.00238 4.2108e+06
-2.743766 0.6423632 -11.99672 4.2108e+06
-2.543745 1.64097 -11.47308 4.2108e+06
-2.044275 2.385147 -10.20355 4.2108e+06
4.792242 -1.798815 6.859391 4.2108e+06
4.510186 0.6794509 6.20574 4.2108e+06
5.331561 2.470318 8.305771 4.2108e+06
-1.346287 -0.7859272 -12.20117 4.2108e+06
-1.410402 0.5426815 -12.26215 4.2108e+06
-1.20631 1.566167 -11.76983 4.2108e+06
-0.6603003 2.337186 -10.56435 4.2108e+06
6.490177 -1.296376 4.442378 4.2108e+06
6.391047 0.9406109 4.358542 4.2108e+06
0.2035943 -1.07813 -12.19777 4.2108e+06
0.02778923 0.3677121 -12.39965 4.2108e+06
0.2171391 1.43815 -11.96268 4.2108e+06
0.7843164 2.257619 -10.85317 4.2108e+06
7.517813 -0.5158956 1.273868 4.2108e+06
7.747215 1.392273 1.854399 4.2108e+06
1.63507 0.08832835 -12.36829 4.2108e+06
1.772702 1.240568 -12.02679 4.2108e+06
2.34132 2.124055 -11.02184 4.2108e+06
6.252248 1.317855 -4.830822 4.2108e+06
8.510168 2.001739 -1.136106 4.2108e+06
3.799629 -0.5607846 -11.72414 4.2108e+06
3.712335 0.8258237 -11.67894 4.2108e+06
4.259345 1.809822 -10.78355 4.2108e+06
5.778409 2.406847 -8.557359 4.2108e+06
9.278315 2.489238 -3.585729 4.2108e+06
6.296083 0.09556672 -10.76379 4.2108e+06
6.704836 1.277249 -10.08674 4.2108e+06
8.500662 1.900039 -7.733777 4.2108e+06
